-88.6933504738562	29.5679233333333	42
-88.6756180426357	29.5595891666667	42
-88.6850163071895	29.5929258333333	42
-88.7074041666667	29.5804245833333	42
-88.7089547093023	29.60126	42
-88.7407408333333	29.5970929166667	42
-88.76157625	29.60126	42
-88.742291375969	29.6262625	42
-88.7240725	29.644481375969	42
-88.7089547093023	29.6762675	42
-88.69907	29.6997194573643	42
-88.7157383333333	29.7151602777778	42
-88.7074041666667	29.7247219573643	42
-88.7074041666667	29.7372213071895	42
-88.6839522093023	29.7596091666667	42
-88.69907	29.7778280426357	42
-88.7006205426357	29.7929458333333	42
-88.7006205426357	29.8179483333333	42
-88.6839522093023	29.8429508333333	42
-88.69907	29.86378625	42
-88.7074041666667	29.8747369573643	42
-88.7101822222222	29.8929558333333	42
-88.6949029166667	29.9179583333333	42
-88.69907	29.9207363888889	42
-88.7157383333333	29.9361772093023	42
-88.7129602777778	29.9596291666667	42
-88.7282395833333	29.9846316666667	42
-88.7157383333333	30.0054670833333	42
-88.7240725	30.0221354166667	42
-88.7282395833333	30.0429708333333	42
-88.7100188071895	30.0679733333333	42
-88.7240725	30.08880875	42
-88.7089547093023	30.1179783333333	42
-88.6839522093023	30.1179783333333	42
-88.6824016666667	30.1361972093023	42
-88.6657333333333	30.1111947093023	42
-88.6573991666667	30.094526375969	42
-88.6323966666667	30.094526375969	42
-88.592276375969	30.10131	42
-88.5573891666667	30.1028605426357	42
-88.5256030426357	30.10131	42
-88.5073841666667	30.1028605426357	42
-88.4740475	30.094526375969	42
-88.4505955426357	30.10131	42
-88.417258875969	30.1096441666667	42
-88.4157083333333	30.1278630426357	42
-88.405823624031	30.151315	42
-88.3740375	30.13881375	42
-88.3907058333333	29.3027805426357	42
-88.4240425	29.2955104738562	42
-88.4589297093023	29.2928958333333	42
-88.4907158333333	29.2970629166667	42
-88.5240525	29.2861122093023	42
-88.5573891666667	29.2788421405229	42
-88.5907258333333	29.2861122093023	42
-88.6157283333333	29.2861122093023	42
-88.6323966666667	29.2611097093023	42
-88.655848624031	29.2678933333333	42
-88.6824016666667	29.2611097093023	42
-88.7006205426357	29.2428908333333	42
-88.7240725	29.2527755426357	42
-88.7574091666667	29.244441375969	42
-88.7907458333333	29.2361072093023	42
-88.8157483333333	29.219438875969	42
-88.8407508333333	29.2038346405229	42
-88.859086	29.20122	42
-88.8768655555556	29.1762175	42
-88.8851997222222	29.1428808333333	42
-88.9007568333333	29.1178783333333	42
-88.3740375	30.13881375	43
-88.3505855426357	30.1429808333333	43
-88.3391502906977	30.1596491666667	43
-88.3073641666667	30.1611997093023	43
-88.280811124031	30.1679833333333	43
-88.249025	30.169533875969	43
-88.2240225	30.1554820833333	43
-88.19902	30.1528655426357	43
-88.1656833333333	30.144531375969	43
-88.1323466666667	30.1361972093023	43
-88.1073441666667	30.1213685028249	43
-88.317248875969	29.3178983333333	43
-88.349035	29.3038446405229	43
-88.3907058333333	29.3027805426357	43
-88.1073441666667	30.1213685028249	44
-88.0740075	30.1289271405229	44
-88.0406708333333	30.1402027777778	44
-88.0156683333333	30.1372613071895	44
-87.9891152906977	30.1263125	44
-87.9656633333333	30.1028605426357	44
-87.9406608333333	30.0861922093023	44
-87.9323266666667	30.0664227906977	44
-87.9573291666667	30.0664227906977	44
-87.9656633333333	30.0528555426357	44
-87.9255430426357	30.0596391666667	44
-87.892206375969	30.0679733333333	44
-87.8823216666667	30.0804745833333	44
-87.8906558333333	30.0914252906977	44
-87.9073241666667	30.1164277906977	44
-87.89899	30.1205929738562	44
-87.8573191666667	30.119528875969	44
-87.830766124031	30.1263125	44
-88.0531720833333	29.4179083333333	44
-88.0896340625	29.4095741666667	44
-88.1156783333333	29.3975359259259	44
-88.149015	29.3873497222222	44
-88.1781845833333	29.3762375	44
-88.2031870833333	29.3679033333333	44
-88.2219389583333	29.351235	44
-88.2561685714286	29.3429008333333	44
-88.2906958333333	29.3395671666667	44
-88.2958245512821	29.3178983333333	44
-88.317248875969	29.3178983333333	44
-87.830766124031	30.1263125	45
-87.8323166666667	30.0971429166667	45
-87.79898	30.1040880555556	45
-87.7713628594771	30.1096441666667	45
-87.7323066666667	30.1028605426357	45
-87.7073041666667	30.1028605426357	45
-87.680751124031	30.1096441666667	45
-87.6572991666667	30.1164277906977	45
-87.6322966666667	30.119528875969	45
-87.617178875969	30.1346466666667	45
-87.592176375969	30.151315	45
-87.5822916666667	30.1455954738562	45
-87.5572891666667	30.1622638071895	45
-87.5406208333333	30.18881875	45
-87.5005005426357	30.1929858333333	45
-87.5072841666667	29.6290405555556	45
-87.5239525	29.6028105426357	45
-87.548955	29.5901477777778	45
-87.5588397093023	29.5595891666667	45
-87.5739575	29.5278030426357	45
-87.5755080426357	29.4929158333333	45
-87.5906258333333	29.4777980426357	45
-87.6224119573643	29.4762475	45
-87.6322966666667	29.48874875	45
-87.6572991666667	29.469463875969	45
-87.6823016666667	29.483031124031	45
-87.69897	29.4943048611111	45
-87.7239725	29.4804145833333	45
-87.7463603594771	29.4845816666667	45
-87.7505255426357	29.4762475	45
-87.7906458333333	29.4706913888889	45
-87.8099288071896	29.451245	45
-87.848985	29.4456888888889	45
-87.8823216666667	29.4361272093023	45
-87.9239925	29.4373547222222	45
-87.9573291666667	29.4283260416667	45
-87.9906658333333	29.4218888308458	45
-88.0255530426357	29.4179083333333	45
-88.0531720833333	29.4179083333333	45
-87.5005005426357	30.1929858333333	46
-87.4822816666667	30.2112047093023	46
-87.448945	30.2057648888889	46
-87.4156083333333	30.2112047093023	46
-87.3822716666667	30.2221554166667	46
-87.3572691666667	30.2362072093023	46
-87.3254830426357	30.251325	46
-87.3072641666667	30.2529918333333	46
-87.2739275	30.2652152777778	46
-87.2405908333333	30.2706079738562	46
-87.2155883333333	30.2872763071895	46
-87.1822516666667	30.2956104738562	46
-87.148915	30.3039446405229	46
-87.1155783333333	30.3130543361582	46
-87.0822416666667	30.3235544444444	46
-87.048905	30.3304995833333	46
-87.2822616666667	29.8579523333333	46
-87.3072641666667	29.8394364257028	46
-87.3322666666667	29.8223932222222	46
-87.3558801388889	29.80128	46
-87.367686875	29.7762775	46
-87.3739375	29.7361572093023	46
-87.3856618361582	29.7096041666667	46
-87.3697704166667	29.6846016666667	46
-87.3932204738562	29.6679333333333	46
-87.4072741666667	29.6372113071895	46
-87.4406108333333	29.6455454738562	46
-87.4739475	29.63876375	46
-87.5072841666667	29.6290405555556	46
-87.048905	30.3304995833333	47
-87.0155683333333	30.3374447222222	47
-86.9765121405229	30.3430008333333	47
-86.9447279166667	30.351335	47
-86.91139125	30.3596691666667	47
-86.8738875	30.3630028333333	47
-86.8337672093023	30.3680033333333	47
-86.79888	30.3730038333333	47
-86.7655433333333	30.3770951515151	47
-86.7238725	30.3805045833333	47
-86.6822016666667	30.3830048333333	47
-86.8030470833333	30.1179783333333	47
-86.8405508333333	30.1205426923077	47
-86.8738875	30.11537390625	47
-86.9134747916667	30.1096441666667	47
-86.9405608333333	30.0992264583333	47
-86.968897	30.0846416666667	47
-86.9914918518518	30.0679733333333	47
-87.0105678333333	30.0429708333333	47
-87.0239025	30.01380125	47
-87.0384872916667	29.9846316666667	47
-87.0572391666667	29.9651852777778	47
-87.0822416666667	29.9496281666667	47
-87.1072441666667	29.9331113636364	47
-87.148915	29.9290705555556	47
-87.1822516666667	29.9246256666667	47
-87.2072541666667	29.9064187179487	47
-87.2322566666667	29.8915668055556	47
-87.2515396405229	29.8679533333333	47
-87.2822616666667	29.8579523333333	47
-86.6822016666667	30.3830048333333	48
-86.6405308333333	30.3818936111111	48
-86.6045795261438	30.3763375	48
-86.5738575	30.3624472222222	48
-86.548855	30.3630028333333	48
-86.5071841666667	30.3652252777778	48
-86.4738475	30.3696701666667	48
-86.448845	30.3692855128205	48
-86.4155083333333	30.3659197916667	48
-86.3795570261438	30.3596691666667	48
-86.3571691666667	30.3580023333333	48
-86.5321866666667	29.9894514257028	48
-86.5655233333333	29.9985219444444	48
-86.6071941666667	29.9979663333333	48
-86.6405308333333	30.007550625	48
-86.6534950925926	30.0346366666667	48
-86.6738675	30.0579723333333	48
-86.69887	30.0696401666667	48
-86.7348213071895	30.0679733333333	48
-86.7591701470588	30.0763075	48
-86.7755443333333	30.10131	48
-86.8030470833333	30.1179783333333	48
-86.3571691666667	30.3580023333333	49
-86.3154983333333	30.3532582692308	49
-86.2821616666667	30.3446676666667	49
-86.248825	30.336181969697	49
-86.2212078594771	30.3263325	49
-86.192036375969	30.3179983333333	49
-86.1710394444444	30.3096641666667	49
-86.1321466666667	30.301820245098	49
-86.1029770833333	30.2929958333333	49
-86.0738075	30.2791055555556	49
-86.0472544573643	30.2679933333333	49
-86.29883	29.8735094444444	49
-86.3016080555555	29.8929558333333	49
-86.3154983333333	29.919508875969	49
-86.3405008333333	29.9372413071895	49
-86.3704473305085	29.951295	49
-86.3821716666667	29.9620103571429	49
-86.4071741666667	29.9455754738562	49
-86.4405108333333	29.9539096405229	49
-86.4698670024876	29.9679633333333	49
-86.4946829166667	29.9846316666667	49
-86.5321866666667	29.9894514257028	49
-86.0472544573643	30.2679933333333	50
-86.0154683333333	30.2547151694915	50
-85.9821316666667	30.2463245	50
-85.9571291666667	30.2303029975124	50
-85.9237925	30.2203695238095	50
-85.8971231666667	30.2096541666667	50
-85.8696204166667	30.1929858333333	50
-85.8467014583333	30.1763175	50
-85.8222319573643	30.1596491666667	50
-85.7972294573643	30.1429808333333	50
-86.1321466666667	29.632513125	50
-86.1654833333333	29.6366802083333	50
-86.1954298305085	29.6345966666667	50
-86.2154883333333	29.63876375	50
-86.248825	29.6304295833333	50
-86.248825	29.6528155426357	50
-86.2592427083333	29.6846016666667	50
-86.2571591666667	29.720021875	50
-86.2404908333333	29.7405596428571	50
-86.2460469444444	29.7762775	50
-86.2621031638418	29.80128	50
-86.2543811111111	29.8346166666667	50
-86.2787714971751	29.851285	50
-86.29883	29.8735094444444	50
-85.7972294573643	30.1429808333333	51
-85.7654433333333	30.1279793333333	51
-85.7654433333333	30.1068661111111	51
-85.7404408333333	30.08880875	51
-85.7154383333333	30.0742239583333	51
-85.6821016666667	30.0624172222222	51
-85.6570991666667	30.0463610028249	51
-85.6320966666667	30.0290805555556	51
-85.6098722222222	30.0096341666667	51
-85.5904258333333	29.9901877777778	51
-85.5709794444444	29.9679633333333	51
-85.9771311666667	29.3762375	51
-85.9821316666667	29.3984619444444	51
-85.9821316666667	29.4156353787879	51
-85.9904658333333	29.4371913071895	51
-86.0116217948718	29.4262425	51
-85.9988	29.4413602906977	51
-86.0043561111111	29.4679133333333	51
-86.0238025	29.4861322093023	51
-86.0370806638418	29.5179183333333	51
-86.048805	29.5470879166667	51
-86.0633897916667	29.5762575	51
-86.0821416666667	29.5984819444444	51
-86.1029770833333	29.6179283333333	51
-86.1321466666667	29.632513125	51
-85.5709794444444	29.9679633333333	52
-85.5529220833333	29.9429608333333	52
-85.53625375	29.9179583333333	52
-85.5279195833333	29.8846216666667	52
-85.5203623305085	29.851285	52
-85.5029170833333	29.8262825	52
-85.4904158333333	29.7955604738562	52
-85.480531124031	29.7679433333333	52
-85.4711328594771	29.7346066666667	52
-85.4638627906977	29.70127	52
-85.4638627906977	29.6762675	52
-85.7654433333333	29.2988488095238	52
-85.8071141666667	29.2991464583333	52
-85.848785	29.2988488095238	52
-85.8821216666667	29.3046201694915	52
-85.9071241666667	29.3205129738562	52
-85.9321266666667	29.33873375	52
-85.9620731638418	29.351235	52
-85.9771311666667	29.3762375	52
-85.4638627906977	29.6762675	53
-85.4786914971751	29.651265	53
-85.4711328594771	29.6179283333333	53
-85.4681913888889	29.5762575	53
-85.4904158333333	29.5554220833333	53
-85.5120281638418	29.551255	53
-85.5154183333333	29.5220854166667	53
-85.5126402777778	29.50125	53
-85.5070841666667	29.4829148333333	53
-85.4737475	29.4713035028249	53
-85.4502955426357	29.4762475	53
-85.441961375969	29.4929158333333	53
-85.4320766666667	29.5024405952381	53
-85.4070741666667	29.520001875	53
-85.3752880426357	29.5179183333333	53
-85.3404008333333	29.519468875969	53
-85.3138477906977	29.5262525	53
-85.2820616666667	29.5278030426357	53
-85.248725	29.519468875969	53
-85.2237225	29.5234744444444	53
-85.1945529166667	29.5095841666667	53
-85.1737175	29.5163677906977	53
-85.1570491666667	29.5121988071895	53
-85.48624875	29.1345466666667	53
-85.5029170833333	29.1595491666667	53
-85.51125125	29.1928858333333	53
-85.5320866666667	29.2151102777778	53
-85.5570891666667	29.2303895833333	53
-85.5888752906977	29.2428908333333	53
-85.6237625	29.2455054738562	53
-85.648765	29.2456688888889	53
-85.6821016666667	29.2538396405229	53
-85.7071041666667	29.2728938333333	53
-85.7321066666667	29.28872875	53
-85.7654433333333	29.2988488095238	53
-85.1570491666667	29.5121988071895	54
-85.130496124031	29.50125	54
-85.105493624031	29.4845816666667	54
-85.0888252906977	29.4595791666667	54
-85.0627586928104	29.4429108333333	54
-85.0695404166667	29.4345766666667	54
-85.0929904738562	29.451245	54
-85.1210978594771	29.4595791666667	54
-85.09871	29.4361272093023	54
-85.0764855555555	29.4179083333333	54
-85.048705	29.4033235416667	54
-85.0153683333333	29.4000494047619	54
-85.0153683333333	29.41374125	54
-85.0443513308458	29.4262425	54
-85.0153683333333	29.4369578571429	54
-84.9971494573643	29.4345766666667	54
-84.9653633333333	29.43874375	54
-84.9252430426357	29.4429108333333	54
-84.891906375969	29.451245	54
-84.8736875	29.469463875969	54
-84.8502355426357	29.4929158333333	54
-84.8335672093023	29.5179183333333	54
-84.8070141666667	29.5278030426357	54
-85.3070641666667	28.9470279166667	54
-85.3377861928105	28.9595291666667	54
-85.3638527906977	28.9761975	54
-85.3892152380952	28.9928658333333	54
-85.4237425	28.99869975	54
-85.4570791666667	28.9917546111111	54
-85.4878011928105	29.0012	54
-85.49875	29.0277530426357	54
-85.5044695261438	29.0678733333333	54
-85.4954163333333	29.10121	54
-85.48624875	29.1345466666667	54
-84.8070141666667	29.5278030426357	55
-84.7903458333333	29.5528055426357	55
-84.7653433333333	29.5705379738562	55
-84.748675	29.544471375969	55
-84.7320066666667	29.569473875969	55
-84.7070041666667	29.5861422093023	55
-84.6846163071895	29.6095941666667	55
-84.6653333333333	29.6278130426357	55
-84.6471144573643	29.6095941666667	55
-84.6335472093023	29.6179283333333	55
-84.6069941666667	29.6288771405229	55
-84.6002105426357	29.651265	55
-84.5752080426357	29.6679333333333	55
-84.555438624031	29.6762675	55
-84.5569891666667	29.6562089971751	55
-84.5653233333333	29.6278130426357	55
-84.541871375969	29.6345966666667	55
-84.5153183333333	29.6455454738562	55
-84.49865	29.6497144573643	55
-84.5127036928105	29.6179283333333	55
-84.4845963071895	29.6262625	55
-84.4835322093023	29.651265	55
-84.4720969573643	29.651265	55
-84.448645	29.6611497093023	55
-84.430426124031	29.6762675	55
-84.405423624031	29.6762675	55
-84.391856375969	29.70127	55
-84.366853875969	29.7179383333333	55
-84.3470844573643	29.7096041666667	55
-84.3220819573643	29.6929358333333	55
-84.3085147093023	29.70127	55
-84.2902958333333	29.7028205426357	55
-84.2736275	29.7111547093023	55
-84.280411124031	29.6846016666667	55
-84.2637427906977	29.6762675	55
-85.0953198305085	28.8095141666667	55
-85.1153783333333	28.8282660416667	55
-85.129963125	28.8428508333333	55
-85.1544345261438	28.8595191666667	55
-85.1794370261438	28.8761875	55
-85.19872	28.894406375969	55
-85.2211078594771	28.9178583333333	55
-85.2403908333333	28.9360772093023	55
-85.266943875969	28.9428608333333	55
-85.29873	28.9306373888889	55
-85.3070641666667	28.9470279166667	55
-84.2637427906977	29.6762675	56
-84.2402908333333	29.669483875969	56
-84.2220719573643	29.6679333333333	56
-84.1902858333333	29.669483875969	56
-84.1652833333333	29.6528155426357	56
-84.1637327906977	29.6345966666667	56
-84.1319466666667	29.619478875969	56
-84.1069441666667	29.619478875969	56
-84.0652733333333	29.619478875969	56
-84.0251530426357	29.6262625	56
-84.0137177906977	29.6095941666667	56
-83.9902658333333	29.619478875969	56
-84.980481124031	28.6261625	56
-84.9903658333333	28.6527155426357	56
-85.0028670833333	28.6845016666667	56
-85.0181463888889	28.7095041666667	56
-85.0369806638418	28.7345066666667	56
-85.0519104487179	28.7428408333333	56
-85.0544245261438	28.7678433333333	56
-85.0695404166667	28.7928458333333	56
-85.0953198305085	28.8095141666667	56
-83.9902658333333	29.619478875969	57
-83.9652633333333	29.6028105426357	57
-83.9334772093023	29.60126	57
-83.9387102906977	29.5845916666667	57
-83.9137077906977	29.5679233333333	57
-83.8834722093023	29.5595891666667	57
-83.8819216666667	29.5413702906977	57
-83.880371124031	29.5095841666667	57
-83.8680313888889	29.50125	57
-83.8470344573643	29.4929158333333	57
-83.8652533333333	29.4746969573643	57
-83.848585	29.4554120833333	57
-83.8470344573643	29.4345766666667	57
-83.8251330426357	29.451245	57
-83.79858	29.444461375969	57
-83.7735775	29.444461375969	57
-83.7819116666667	29.4277930426357	57
-84.8570191666667	28.4526955426357	57
-84.8736875	28.4787621405229	57
-84.8903558333333	28.5037646405229	57
-84.9153583333333	28.5204329738562	57
-84.9320266666667	28.5483769444444	57
-84.948695	28.569373875969	57
-84.96119625	28.60116	57
-84.980481124031	28.6261625	57
-83.7819116666667	29.4277930426357	58
-83.7902458333333	29.408023624031	58
-83.7735775	29.3861222093023	58
-83.755358624031	29.3845716666667	58
-83.7152383333333	29.3804045833333	58
-83.7402408333333	29.3746869573643	58
-83.7569091666667	29.3496844573643	58
-83.7652433333333	29.3234544444444	58
-83.7319066666667	29.3111147093023	58
-83.7069041666667	29.294446375969	58
-83.6735675	29.2861122093023	58
-83.6819016666667	29.2663427906977	58
-83.6886852906977	29.2595591666667	58
-83.6720169573643	29.2345566666667	58
-83.6636827906977	29.20122	58
-83.648565	29.2027705426357	58
-83.6318966666667	29.1777680426357	58
-83.641781375969	29.1678833333333	58
-83.6735675	29.16371625	58
-83.7152383333333	29.1616327083333	58
-83.6902358333333	29.1538296405229	58
-83.648565	29.1539930555556	58
-83.630346124031	29.1345466666667	58
-84.6153283333333	28.3276830426357	58
-84.6319966666667	28.332916124031	58
-84.6137777906977	28.351135	58
-84.6403308333333	28.3610197093023	58
-84.6653333333333	28.3610197093023	58
-84.680451124031	28.3928058333333	58
-84.7002205426356	28.40114	58
-84.730456124031	28.3928058333333	58
-84.748675	28.394356375969	58
-84.766893875969	28.3928058333333	58
-84.7585597093023	28.3594691666667	58
-84.741891375969	28.3344666666667	58
-84.7570091666667	28.3026805426357	58
-84.7820116666667	28.3219654166667	58
-84.8043995261438	28.3428008333333	58
-84.81118125	28.3761375	58
-84.8292386111111	28.40114	58
-84.848685	28.4240589583333	58
-84.8570191666667	28.4526955426357	58
-83.630346124031	29.1345466666667	59
-83.6136777906977	29.1095441666667	59
-83.6068941666667	29.0860922093023	59
-83.5735575	29.0777580426357	59
-83.548555	29.0610897093023	59
-83.5402208333333	29.057988624031	59
-83.555338624031	29.0262025	59
-83.5318866666667	29.0360872093023	59
-83.5136677906977	29.0178683333333	59
-83.49855	28.9860822093023	59
-83.4652133333333	28.9777480426357	59
-83.448545	28.9527455426357	59
-83.430326124031	28.951195	59
-83.4068741666667	28.9277430426357	59
-84.4264205555556	28.1344466666667	59
-84.4403108333333	28.1609997093023	59
-84.4653133333333	28.1745669573643	59
-84.4720969573643	28.20112	59
-84.49865	28.2110047093023	59
-84.5236525	28.194336375969	59
-84.530436124031	28.2177883333333	59
-84.5194854166667	28.251125	59
-84.530436124031	28.2844616666667	59
-84.541871375969	28.2844616666667	59
-84.548655	28.2610097093023	59
-84.5721069573643	28.2844616666667	59
-84.580441124031	28.3177983333333	59
-84.59866	28.3026805426357	59
-84.6153283333333	28.3276830426357	59
-83.4068741666667	28.9277430426357	60
-83.405323624031	28.9095241666667	60
-83.3818716666667	28.8860722093023	60
-83.3818716666667	28.8610697093023	60
-83.3902058333333	28.8402361928105	60
-83.3818716666667	28.8317386111111	60
-83.3568691666667	28.8277330426357	60
-83.3374227777778	28.8261825	60
-83.3151983333333	28.8220154166667	60
-83.2969794573643	28.80118	60
-83.280311124031	28.8095141666667	60
-83.2901958333333	28.782961124031	60
-83.3068641666667	28.757958624031	60
-83.2969794573643	28.7345066666667	60
-83.2886452906977	28.70117	60
-83.2636427906977	28.6845016666667	60
-83.2818616666667	28.6650552777778	60
-83.3068641666667	28.6527155426357	60
-84.3236325	27.919308875969	60
-84.3403008333333	27.944311375969	60
-84.355418624031	27.9760975	60
-84.3637527906977	28.0094341666667	60
-84.3736375	28.0359872093023	60
-84.4069741666667	28.044321375969	60
-84.4137577906977	28.0677733333333	60
-84.4194754166667	28.10111	60
-84.4264205555556	28.1344466666667	60
-83.3068641666667	28.6527155426357	61
-83.2735275	28.644381375969	61
-83.2469744573643	28.6344966666667	61
-83.2469744573643	28.5928258333333	61
-83.2219719573643	28.5761575	61
-83.2401908333333	28.5746069573643	61
-83.2469744573643	28.551155	61
-83.2401908333333	28.53865375	61
-83.255308624031	28.5261525	61
-83.2235225	28.5110347093023	61
-83.205303624031	28.4928158333333	61
-83.1901858333333	28.4776980426357	61
-83.1969694573643	28.451145	61
-83.1901858333333	28.4245919573643	61
-83.1969694573643	28.40114	61
-83.205303624031	28.3844716666667	61
-83.1719669573643	28.3761375	61
-83.1583997093023	28.351135	61
-84.2293420261438	27.6427308333333	61
-84.2220719573643	27.6760675	61
-84.2137377906977	27.7094041666667	61
-84.2137377906977	27.751075	61
-84.2137377906977	27.7760775	61
-84.2319566666667	27.794296375969	61
-84.2501755426357	27.7760775	61
-84.2501755426357	27.751075	61
-84.2569591666667	27.7276230426357	61
-84.2720769573643	27.7594091666667	61
-84.2819616666667	27.7859622093023	61
-84.3043495261438	27.8094141666667	61
-84.3166873611111	27.8344166666667	61
-84.3027970833333	27.8594191666667	61
-84.31113125	27.8927558333333	61
-84.3236325	27.919308875969	61
-83.1583997093023	28.351135	62
-83.1636327906977	28.3344666666667	62
-83.1526820833333	28.30113	62
-83.148515	28.2802945833333	62
-83.1469644573643	28.2427908333333	62
-83.1636327906977	28.2344566666667	62
-83.1735175	28.2110047093023	62
-83.155298624031	28.1927858333333	62
-83.1651833333333	28.169333875969	62
-83.1386302906977	28.1761175	62
-83.1250630426357	28.1677833333333	62
-83.1136277906977	28.151115	62
-83.1333972093023	28.1427808333333	62
-83.1318466666667	28.1302795833333	62
-83.1292320261438	28.0927758333333	62
-83.11101125	28.0761075	62
-83.1068441666667	28.094326375969	62
-83.0886252906977	28.0761075	62
-84.0459903594771	27.4927158333333	62
-84.0387202906977	27.5260525	62
-84.0402708333333	27.544271375969	62
-84.0637227906977	27.5677233333333	62
-84.080391124031	27.5760575	62
-84.080391124031	27.60106	62
-84.0887252906977	27.6343966666667	62
-84.1069441666667	27.6526155426357	62
-84.1402808333333	27.6609497093023	62
-84.1569491666667	27.6359472093023	62
-84.1625052777778	27.60106	62
-84.1708394444445	27.5677233333333	62
-84.1652833333333	27.5359372093023	62
-84.1952298305085	27.551055	62
-84.2041761111111	27.5843916666667	62
-84.2152883333333	27.61356125	62
-84.2293420261438	27.6427308333333	62
-83.0886252906977	28.0761075	63
-83.0719569573643	28.051105	63
-83.080291124031	28.0177683333333	63
-83.0901758333333	27.9912152906977	63
-83.0886252906977	27.9594291666667	63
-83.0886252906977	27.9177583333333	63
-83.0818416666667	27.8776380426357	63
-83.0735075	27.857868624031	63
-83.0969594573643	27.8344166666667	63
-83.0818416666667	27.819298875969	63
-83.0636227906977	27.80108	63
-83.0719569573643	27.7677433333333	63
-83.048505	27.744291375969	63
-83.9069241666667	27.2661427906977	63
-83.905373624031	27.30103	63
-83.9152583333333	27.3281160416667	63
-83.9527620833333	27.3343666666667	63
-83.9319266666667	27.344251375969	63
-83.9470444573643	27.3760375	63
-83.9652633333333	27.394256375969	63
-83.980381124031	27.4260425	63
-83.9986	27.4109247093023	63
-84.0152683333333	27.3869863071895	63
-84.0319366666667	27.4109247093023	63
-84.0387202906977	27.4343766666667	63
-84.030386124031	27.4677133333333	63
-84.0459903594771	27.4927158333333	63
-83.048505	27.744291375969	64
-83.0386202906977	27.7177383333333	64
-83.0318366666667	27.68856875	64
-83.0386202906977	27.6677333333333	64
-83.0292220261438	27.6343966666667	64
-83.0469544573644	27.6260625	64
-83.0151683333333	27.6109447093023	64
-83.030286124031	27.5927258333333	64
-83.0068341666667	27.5718904166667	64
-83.0284464971751	27.5593891666667	64
-83.0026670833333	27.5427208333333	64
-82.9969494573644	27.5093841666667	64
-82.9734975	27.5026005426357	64
-82.9568291666667	27.4775980426357	64
-83.81108125	27.0426708333333	64
-83.8293020261438	27.0676733333333	64
-83.8387002906977	27.10101	64
-83.8444179166667	27.1343466666667	64
-83.8637027906977	27.1593491666667	64
-83.880371124031	27.1843516666667	64
-83.8819216666667	27.2025705426357	64
-83.89859	27.2275730426357	64
-83.8970394573643	27.2426908333333	64
-83.9069241666667	27.2661427906977	64
-82.9568291666667	27.4775980426357	65
-82.9636127906977	27.451045	65
-82.9500455426356	27.4260425	65
-82.9276595833333	27.4177083333333	65
-82.9136077906977	27.3927058333333	65
-82.8943229166667	27.3677033333333	65
-82.8969394573643	27.3427008333333	65
-82.8901558333333	27.319248875969	65
-82.8969394573643	27.3093641666667	65
-82.8636027906977	27.30103	65
-82.848485	27.2703079738562	65
-82.8151483333333	27.2609097093023	65
-83.7152383333333	26.8369313071895	65
-83.7386902906977	26.8593191666667	65
-83.7652433333333	26.869203875969	65
-83.7819116666667	26.8968229166667	65
-83.79858	26.919208875969	65
-83.8027470833333	26.9593291666667	65
-83.8136977906977	26.9926658333333	65
-83.8136977906977	27.0176683333333	65
-83.81108125	27.0426708333333	65
-82.8151483333333	27.2609097093023	66
-82.7969294573643	27.2426908333333	66
-82.7651433333333	27.2275730426357	66
-82.7651433333333	27.2025705426357	66
-82.7401408333333	27.1859022093023	66
-82.7151383333333	27.169233875969	66
-82.7068041666667	27.1494644573643	66
-82.6901358333333	27.1275630426357	66
-82.6719169573643	27.1260125	66
-82.6635827906977	27.0926758333333	66
-82.6401308333333	27.069223875969	66
-82.6317966666667	27.0358872093023	66
-82.630246124031	27.0176683333333	66
-83.655348624031	26.5759575	66
-83.6542845261438	26.6176283333333	66
-83.66106625	26.6342966666667	66
-83.6386802906977	26.650965	66
-83.648565	26.6775180426357	66
-83.6568991666667	26.7108547093023	66
-83.6568991666667	26.73847375	66
-83.6902358333333	26.744191375969	66
-83.680351124031	26.7676433333333	66
-83.6886852906977	26.80098	66
-83.6886852906977	26.8259825	66
-83.7152383333333	26.8369313071895	66
-82.630246124031	27.0176683333333	67
-82.605243624031	27.001	67
-82.6208478594771	26.9926658333333	67
-82.59846	26.9858822093023	67
-82.580241124031	26.9843316666667	67
-82.5750080426357	26.9676633333333	67
-82.5635727906977	26.950995	67
-82.541671375969	26.9343266666667	67
-82.5401208333333	26.9161077906977	67
-82.548455	26.8869363071895	67
-82.5234525	26.869203875969	67
-82.505233624031	26.8843216666667	67
-82.4968994573643	26.850985	67
-82.5041695261438	26.8176483333333	67
-82.4817816666667	26.794196375969	67
-83.59856	26.3493844573643	67
-83.5970094573643	26.3842716666667	67
-83.5959453594771	26.4092741666667	67
-83.5970094573643	26.450945	67
-83.5902258333333	26.4787255555556	67
-83.630346124031	26.4842816666667	67
-83.6152283333333	26.5160677906977	67
-83.6220119573644	26.5426208333333	67
-83.6334472093023	26.5592891666667	67
-83.655348624031	26.5759575	67
-82.4817816666667	26.794196375969	68
-82.4734475	26.7608597093023	68
-82.4583297093023	26.7426408333333	68
-82.4468944573643	26.7259725	68
-82.430226124031	26.7343066666667	68
-82.4317766666667	26.7025205426357	68
-82.4317766666667	26.68846875	68
-82.448445	26.669183875969	68
-82.4234425	26.6525155426357	68
-82.4468944573643	26.6426308333333	68
-82.4218919573643	26.6259625	68
-82.405223624031	26.60096	68
-82.3901058333333	26.5717904166667	68
-82.3718869573643	26.550955	68
-82.3817716666667	26.5275030426357	68
-82.3651033333333	26.5160677906977	68
-83.4943829166667	26.1342466666667	68
-83.505333624031	26.1675833333333	68
-83.530336124031	26.1842516666667	68
-83.548555	26.2024705426357	68
-83.5720069573643	26.1925858333333	68
-83.5720069573643	26.2175883333333	68
-83.580341124031	26.250925	68
-83.5720069573643	26.2842616666667	68
-83.5720069573643	26.3092641666667	68
-83.5720069573643	26.3342666666667	68
-83.5845063071895	26.350935	68
-83.59856	26.3493844573643	68
-82.3651033333333	26.5160677906977	69
-82.3692704166667	26.4926158333333	69
-82.3718869573643	26.4676133333333	69
-82.38593875	26.4426108333333	69
-82.3885552906977	26.4176083333333	69
-82.405223624031	26.3926058333333	69
-82.39844	26.369153875969	69
-82.3999905426356	26.350935	69
-82.4218919573643	26.3676033333333	69
-82.4234425	26.3358172093023	69
-82.39844	26.319148875969	69
-82.3901058333333	26.2983153594771	69
-82.3817716666667	26.269143875969	69
-82.3567691666667	26.2524755426357	69
-82.3234325	26.244141375969	69
-82.29843	26.2274730426357	69
-82.2734275	26.2274730426357	69
-83.4402108333333	25.8857722093023	69
-83.455328624031	25.9175583333333	69
-83.455328624031	25.9425608333333	69
-83.4652133333333	25.969113875969	69
-83.4735475	25.9857822093023	69
-83.480331124031	26.0259025	69
-83.4902158333333	26.0493544573643	69
-83.4902158333333	26.0607897093023	69
-83.505333624031	26.0925758333333	69
-83.5068841666667	26.107693624031	69
-83.4943829166667	26.1342466666667	69
-82.2734275	26.2274730426357	70
-82.255208624031	26.2092541666667	70
-82.2317566666667	26.219138875969	70
-82.2067541666667	26.219138875969	70
-82.1817516666667	26.2024705426357	70
-82.1567491666667	26.1858022093023	70
-82.1234125	26.194136375969	70
-82.1135277906977	26.1675833333333	70
-82.130196124031	26.1425808333333	70
-82.1317466666667	26.107693624031	70
-82.130196124031	26.0759075	70
-82.1400808333333	26.0524555426357	70
-82.128413	26.0259025	70
-82.1150783333333	26.0274530426357	70
-82.0885252906977	26.0175683333333	70
-82.080191124031	25.9842316666667	70
-82.0635227906977	25.9758975	70
-83.4136577906977	25.6258625	70
-83.4219919573643	25.6591991666667	70
-83.4386602906977	25.6842016666667	70
-83.4068741666667	25.6993194573643	70
-83.405323624031	25.7342066666667	70
-83.4068741666667	25.7524255426357	70
-83.4386602906977	25.7675433333333	70
-83.430326124031	25.80088	70
-83.4469944573643	25.8258825	70
-83.4568791666667	25.83838375	70
-83.448545	25.8647752777778	70
-83.4402108333333	25.8857722093023	70
-82.0635227906977	25.9758975	71
-82.0567391666667	25.9493444573643	71
-82.0567391666667	25.9274430426357	71
-82.0468544573643	25.90089	71
-82.0400708333333	25.8774380426357	71
-82.030186124031	25.8675533333333	71
-82.0135177906977	25.8425508333333	71
-81.9968494573643	25.8175483333333	71
-82.0124536928105	25.7925458333333	71
-81.9817316666667	25.7774280426357	71
-81.9885152906977	25.750875	71
-83.355318624031	25.4425108333333	71
-83.3735375	25.444061375969	71
-83.380321124031	25.4675133333333	71
-83.3735375	25.494066375969	71
-83.380321124031	25.5341866666667	71
-83.39854	25.5524055426357	71
-83.405323624031	25.5925258333333	71
-83.4136577906977	25.6258625	71
-81.9885152906977	25.750875	72
-81.9635127906977	25.750875	72
-81.9635127906977	25.7258725	72
-81.9567291666667	25.7159877906977	72
-81.9650633333333	25.682651124031	72
-81.948395	25.6607497093023	72
-81.9635127906977	25.6425308333333	72
-81.9468444573643	25.6175283333333	72
-81.9233925	25.594076375969	72
-81.905173624031	25.5758575	72
-81.9218419573644	25.550855	72
-81.9233925	25.532636124031	72
-81.930176124031	25.5091841666667	72
-81.9468444573643	25.4841816666667	72
-81.930176124031	25.4591791666667	72
-81.9400608333333	25.432626124031	72
-81.9233925	25.4107247093023	72
-81.9150583333333	25.3773880426357	72
-83.355318624031	25.1341466666667	72
-83.3652033333333	25.157598624031	72
-83.348535	25.182601124031	72
-83.355318624031	25.2091541666667	72
-83.3219819573643	25.2174883333333	72
-83.3219819573643	25.2424908333333	72
-83.348535	25.2523755426357	72
-83.3886552906977	25.2591591666667	72
-83.348535	25.2659427906977	72
-83.3386502906977	25.2924958333333	72
-83.355318624031	25.3174983333333	72
-83.355318624031	25.3591691666667	72
-83.355318624031	25.40084	72
-83.355318624031	25.4425108333333	72
-81.9150583333333	25.3773880426357	73
-81.9218419573644	25.3675033333333	73
-81.9317266666667	25.357618624031	73
-81.9150583333333	25.3357172093023	73
-81.905173624031	25.3258325	73
-81.9067241666667	25.307613624031	73
-81.8968394573644	25.2841616666667	73
-81.9218419573644	25.2674933333333	73
-81.9332772093023	25.250825	73
-81.948395	25.2357072093023	73
-81.9135077906977	25.2341566666667	73
-81.8817216666667	25.2357072093023	73
-81.866603875969	25.2174883333333	73
-81.8468344573644	25.2091541666667	73
-81.8150483333333	25.194036375969	73
-81.7900458333333	25.1773680426357	73
-81.805163624031	25.1591491666667	73
-81.805163624031	25.1174783333333	73
-81.8134977906977	25.0841416666667	73
-83.3719869573643	24.8674533333333	73
-83.355318624031	24.8924558333333	73
-83.348535	24.919008875969	73
-83.3707594444444	24.9174583333333	73
-83.3818716666667	24.9159077906977	73
-83.3719869573643	24.9424608333333	73
-83.3874277777778	24.9674633333333	73
-83.3902058333333	24.9952438888889	73
-83.3652033333333	24.9992494573643	73
-83.3469844573643	25.0008	73
-83.3151983333333	24.9966329166667	73
-83.3219819573643	25.0258025	73
-83.3386502906977	25.0174683333333	73
-83.3636527906977	25.0174683333333	73
-83.3886552906977	25.0341366666667	73
-83.3636527906977	25.050805	73
-83.3652033333333	25.0659227906977	73
-83.3402008333333	25.0659227906977	73
-83.3469844573643	25.0924758333333	73
-83.355318624031	25.1091441666667	73
-83.355318624031	25.1341466666667	73
-81.8134977906977	25.0841416666667	74
-81.7900458333333	25.0606897093023	74
-81.7817116666667	25.044021375969	74
-81.7650433333333	25.019018875969	74
-81.7718269573643	24.9924658333333	74
-81.7884952906977	24.9674633333333	74
-81.7832622093023	24.950795	74
-81.7650433333333	24.9492444573643	74
-81.7884952906977	24.9257925	74
-81.791596375969	24.9174583333333	74
-81.805163624031	24.9091241666667	74
-81.8233825	24.8909052906977	74
-81.8067141666667	24.869003875969	74
-81.830166124031	24.8591191666667	74
-81.8150483333333	24.8409002906977	74
-81.848385	24.8492344573643	74
-81.8317166666667	24.8273330426357	74
-81.8134977906977	24.8257825	74
-81.8134977906977	24.80078	74
-81.8400508333333	24.7908952906977	74
-81.855168624031	24.7591091666667	74
-83.5068841666667	24.6041501694915	74
-83.5402208333333	24.6147022040498	74
-83.5652233333333	24.6299295833333	74
-83.6068941666667	24.6323908430799	74
-83.6318966666667	24.6478185774411	74
-83.6277295833333	24.6757675	74
-83.6386802906977	24.7091041666667	74
-83.6501155426357	24.7257725	74
-83.6527320833333	24.7424408333333	74
-83.6568991666667	24.7606597093023	74
-83.641781375969	24.7591091666667	74
-83.6251130426357	24.7341066666667	74
-83.6068941666667	24.7158877906977	74
-83.5886752906977	24.7174383333333	74
-83.5568891666667	24.7314920261438	74
-83.5720069573643	24.750775	74
-83.5652233333333	24.7742269573643	74
-83.5386702906977	24.7674433333333	74
-83.516768875969	24.7841116666667	74
-83.4902158333333	24.7742269573643	74
-83.4719969573643	24.7757775	74
-83.448545	24.76327625	74
-83.4334272093023	24.7341066666667	74
-83.4152083333333	24.7148236928105	74
-83.39854	24.6908852906977	74
-83.366753875969	24.6924358333333	74
-83.3568691666667	24.7049370833333	74
-83.3719869573643	24.7174383333333	74
-83.3719869573643	24.7424408333333	74
-83.3943729166667	24.7591091666667	74
-83.3959253594771	24.7841116666667	74
-83.380321124031	24.8091141666667	74
-83.3719869573643	24.8424508333333	74
-83.3719869573643	24.8674533333333	74
-81.855168624031	24.7591091666667	75
-81.8817216666667	24.7492244573643	75
-81.9067241666667	24.7481603594771	75
-81.9317266666667	24.7313286111111	75
-81.9650633333333	24.7229944444444	75
-82.005183624031	24.7174383333333	75
-82.0317366666667	24.707553624031	75
-82.0650733333333	24.6992194573643	75
-82.0900758333333	24.6992194573643	75
-82.1234125	24.68826875	75
-82.1567491666667	24.682551124031	75
-82.19842	24.6807114971751	75
-82.2400908333333	24.6785455555556	75
-82.2650933333333	24.6981553594771	75
-82.3025970833333	24.6924358333333	75
-82.3401008333333	24.6874353333333	75
-82.3791570261438	24.6841016666667	75
-82.4151083333333	24.6771565277778	75
-82.448445	24.6717870024876	75
-82.4767811666667	24.6590991666667	75
-82.4875011928105	24.6257625	75
-82.4958353594771	24.5924258333333	75
-82.4968994573643	24.5674233333333	75
-82.5135677906977	24.5590891666667	75
-82.53595375	24.5424208333333	75
-82.5526220833333	24.5424208333333	75
-82.548455	24.5785355555556	75
-82.541671375969	24.60076	75
-82.5635727906977	24.5840916666667	75
-82.5817916666667	24.5965929166667	75
-82.617211875	24.5924258333333	75
-82.6219119573643	24.5674233333333	75
-82.6401308333333	24.5543267857143	75
-83.2136377906977	24.5090841666667	75
-83.2235225	24.5356372093023	75
-83.2469744573643	24.5590891666667	75
-83.2651933333333	24.5773080426357	75
-83.2957519444444	24.5674233333333	75
-83.2874177777778	24.5340866666667	75
-83.3026970833333	24.5340866666667	75
-83.3040861111111	24.5757575	75
-83.3219819573643	24.60076	75
-83.3334172093023	24.5840916666667	75
-83.36103625	24.5674233333333	75
-83.341751375969	24.5424208333333	75
-83.3719869573643	24.550755	75
-83.4068741666667	24.5581631481481	75
-83.4318766666667	24.5714038308458	75
-83.4568791666667	24.575162202381	75
-83.4735475	24.5952038888889	75
-83.5068841666667	24.6041501694915	75
-81.7125	24.4773148148148	76
-81.7458333333333	24.4680555555556	76
-81.7875	24.4688374191047	76
-81.8125	24.4684024372526	76
-81.8458333333333	24.4583333333333	76
-81.8791666666667	24.4520833333333	76
-81.9125	24.4432291666667	76
-81.9428407549278	24.4375	76
-81.964880952381	24.4541666666667	76
-81.9875	24.460119047619	76
-82.0089285714286	24.4458333333333	76
-82.0291666666667	24.4652777777778	76
-82.0541666666667	24.4496212121212	76
-82.0930555555556	24.4541666666667	76
-82.1208333333333	24.4527777777778	76
-82.1541666666667	24.4595238095238	76
-82.1958333333333	24.4586111111111	76
-82.2375	24.4609375	76
-82.2791666666667	24.4602272727273	76
-82.3125	24.4479166666667	76
-82.3458333333333	24.4447916666667	76
-82.3814330069803	24.4375	76
-82.4208333333333	24.4354166666667	76
-82.4511740882611	24.4291666666667	76
-82.4748575429786	24.4208333333333	76
-82.4845074215944	24.4458333333333	76
-82.4625	24.45	76
-82.4291666666667	24.4611884901899	76
-82.4041666666667	24.475	76
-82.4125	24.498099673647	76
-82.4445218235232	24.4958333333333	76
-82.4625	24.4971448431434	76
-82.4791666666667	24.5054781764768	76
-82.5111884901899	24.5208333333333	76
-82.5304781764768	24.5291666666667	76
-82.5528551568566	24.5291666666667	76
-82.5526220833333	24.5424208333333	76
-82.548455	24.5785355555556	76
-82.541671375969	24.60076	76
-82.5635727906977	24.5840916666667	76
-82.5817916666667	24.5965929166667	76
-82.617211875	24.5924258333333	76
-82.6219119573643	24.5674233333333	76
-82.6401308333333	24.5543267857143	76
-83.2136377906977	24.5090841666667	76
-83.1611884901899	24.4791666666667	76
-83.1375	24.4741666666667	76
-83.1208333333333	24.4660714285714	76
-83.1041666666667	24.4604166666667	76
-83.0791666666667	24.4558333333333	76
-83.0625	24.453125	76
-83.0375	24.4472222222222	76
-83.0208333333333	24.4434523809524	76
-83.0041666666667	24.4341589286606	76
-82.9791666666667	24.4327380952381	76
-82.9583333333333	24.4291666666667	76
-82.9375	24.4241666666667	76
-82.9208333333333	24.4196428571429	76
-82.8958333333333	24.4141666666667	76
-82.8708333333333	24.4136904761905	76
-82.8625	24.4025	76
-82.8445218235232	24.3958333333333	76
-82.8208333333333	24.3934523809524	76
-82.801900326353	24.3875	76
-82.7791666666667	24.384375	76
-82.7625	24.37626080066	76
-82.7375	24.3731060606061	76
-82.7125	24.3722222222222	76
-82.6958333333333	24.3702380952381	76
-82.6708333333333	24.367803030303	76
-82.6458333333333	24.3641666666667	76
-82.6291666666667	24.359375	76
-82.6041666666667	24.361217948718	76
-82.5791666666667	24.360119047619	76
-82.5541666666667	24.3599358974359	76
-82.5291666666667	24.3575	76
-82.5041666666667	24.3575	76
-82.4791666666667	24.3577380952381	76
-82.4541666666667	24.3578125	76
-82.4291666666667	24.3613095238095	76
-82.4083333333333	24.3625	76
-82.3875	24.3699074074074	76
-82.3647663403137	24.3708333333333	76
-82.3471448431434	24.3791666666667	76
-82.3375	24.3916666666667	76
-82.3208333333333	24.398099673647	76
-82.3125	24.4166666666667	76
-82.2958333333333	24.4064330069803	76
-82.2804781764768	24.4208333333333	76
-82.2708333333333	24.4305555555556	76
-82.2541666666667	24.4386111111111	76
-82.2291666666667	24.4392857142857	76
-82.2041666666667	24.4398148148148	76
-82.1791666666667	24.4402777777778	76
-82.1541666666667	24.4391666666667	76
-82.1375	24.4349290269294	76
-82.1125	24.4335317460317	76
-82.0875	24.4315476190476	76
-82.0675	24.4291666666667	76
-82.0458333333333	24.4244565217391	76
-82.0291666666667	24.4205459770115	76
-82.0041666666667	24.4189814814815	76
-81.9791666666667	24.4204710144928	76
-81.9541666666667	24.4204861111111	76
-81.9314330069803	24.4208333333333	76
-81.9125	24.4244565217391	76
-81.8875	24.4263888888889	76
-81.8625	24.4287280701754	76
-81.8458333333333	24.4307291666667	76
-81.8208333333333	24.4363888888889	76
-81.8041666666667	24.4388888888889	76
-81.7791666666667	24.4421875	76
-81.7606481481481	24.4458333333333	76
-81.7375	24.4501984126984	76
-81.7125	24.4515956935961	76
-80.5041666666667	24.9184523809524	77
-80.5302083333333	24.9041666666667	77
-80.5541666666667	24.8855040857714	77
-80.5791666666667	24.8703431372549	77
-80.6069444444445	24.8541666666667	77
-80.634375	24.8375	77
-80.6583333333333	24.8208333333333	77
-80.6791666666667	24.8018613723261	77
-80.7041666666667	24.7844696969697	77
-80.7291666666667	24.7702380952381	77
-80.7541666666667	24.7519746323409	77
-80.7875	24.7391666666667	77
-80.8125	24.7286111111111	77
-80.8458333333333	24.7152777777778	77
-80.8708333333333	24.702170752438	77
-80.9041666666667	24.6923611111111	77
-80.9361111111111	24.6791666666667	77
-80.9625	24.6692708333333	77
-80.9958333333333	24.6591666666667	77
-81.0291666666667	24.6483333333333	77
-81.0608333333333	24.6375	77
-81.0875	24.627170752438	77
-81.1208333333333	24.6203125	77
-81.1541666666667	24.6108333333333	77
-81.1875	24.6026041666667	77
-81.2208333333333	24.5941666666667	77
-81.2541666666667	24.5847222222222	77
-81.2875	24.5743055555556	77
-81.3208333333333	24.5675	77
-81.3541666666667	24.5571428571429	77
-81.3875	24.5505208333333	77
-81.4208333333333	24.54375	77
-81.4541666666667	24.5356481481481	77
-81.4875	24.5282894736842	77
-81.5221448431434	24.5208333333333	77
-81.5541666666667	24.5105392156863	77
-81.5891666666667	24.5041666666667	77
-81.623099673647	24.4958333333333	77
-81.6625	24.49	77
-81.6875	24.4781862745098	77
-81.6958333333333	24.4564814814815	77
-81.6791666666667	24.4651315789474	77
-81.665625	24.4708333333333	77
-81.6458333333333	24.4691666666667	77
-81.6291666666667	24.4725877192982	77
-81.6125	24.4833333333333	77
-81.5875	24.4838768115942	77
-81.5666666666667	24.4875	77
-81.5458333333333	24.4945	77
-81.5291666666667	24.4962962962963	77
-81.5041666666667	24.5032894736842	77
-81.4875	24.5047619047619	77
-81.4625	24.5105769230769	77
-81.4458333333333	24.5136111111111	77
-81.4208333333333	24.5199074074074	77
-81.4041666666667	24.5225	77
-81.3791666666667	24.5282407407407	77
-81.3625	24.5317708333333	77
-81.3416666666667	24.5375	77
-81.3208333333333	24.5410714285714	77
-81.2988259117389	24.5458333333333	77
-81.2791666666667	24.5520833333333	77
-81.2625	24.5558333333333	77
-81.2386904761905	24.5625	77
-81.2208333333333	24.5673611111111	77
-81.2041666666667	24.5714285714286	77
-81.1791666666667	24.5772435897436	77
-81.1625	24.5830128205128	77
-81.1458333333333	24.5880208333333	77
-81.1208333333333	24.5951923076923	77
-81.1041666666667	24.5993055555556	77
-81.0791666666667	24.6036111111111	77
-81.0625	24.6102272727273	77
-81.0458333333333	24.6132575757576	77
-81.0270833333333	24.6208333333333	77
-81.0041666666667	24.6267857142857	77
-80.9875	24.6319444444444	77
-80.9691666666667	24.6375	77
-80.9508333333333	24.6458333333333	77
-80.9291666666667	24.6535256410256	77
-80.9125	24.6595238095238	77
-80.8958333333333	24.6660714285714	77
-80.8791666666667	24.6732142857143	77
-80.8625	24.6798076923077	77
-80.8430555555556	24.6875	77
-80.8208333333333	24.6934024372526	77
-80.8041666666667	24.7028846153846	77
-80.7875	24.7080128205128	77
-80.7708333333333	24.7176282051282	77
-80.7541666666667	24.7259615384615	77
-80.7375	24.7358333333333	77
-80.7208333333333	24.7445512820513	77
-80.7041666666667	24.7517357705859	77
-80.690625	24.7625	77
-80.6791666666667	24.7716666666667	77
-80.6625	24.7828703703704	77
-80.6458333333333	24.7949074074074	77
-80.6347222222222	24.8041666666667	77
-80.6208333333333	24.8135416666667	77
-80.6041666666667	24.8263888888889	77
-80.5875	24.8364583333333	77
-80.5755952380952	24.8458333333333	77
-80.5569444444445	24.8541666666667	77
-80.5424922619939	24.8625	77
-80.5291666666667	24.875462962963	77
-80.5125	24.8830128205128	77
-80.5041666666667	24.9184523809524	78
-80.4791666666667	24.9370833333333	78
-80.4548611111111	24.9541666666667	78
-80.4375	24.9717592592593	78
-80.4097222222222	24.9875	78
-80.3861111111111	25.0041666666667	78
-80.361858974359	25.0208333333333	78
-80.3375	25.0436403508772	78
-80.3208333333333	25.0685606060606	78
-80.3036764705882	25.0875	78
-80.2850490196079	25.1125	78
-80.2625	25.1338541666667	78
-80.2458333333333	25.1604166666667	78
-80.2284090909091	25.1791666666667	78
-80.2125	25.2050925925926	78
-80.1967592592593	25.2375	78
-80.1848958333333	25.2625	78
-80.1696060497699	25.2875	78
-80.1541666666667	25.3147663403137	78
-80.1446428571429	25.3458333333333	78
-80.1371376811594	25.3791666666667	78
-80.125	25.4125	78
-80.1174242424242	25.4458333333333	78
-80.1083333333333	25.4791666666667	78
-80.1072916666667	25.5041666666667	78
-80.0994791666667	25.5375	78
-80.0958333333333	25.5645833333333	78
-80.0932291666667	25.5958333333333	78
-80.0929347826087	25.6375	78
-80.0928921568627	25.6791666666667	78
-80.0958333333333	25.7184523809524	78
-80.0912037037037	25.7458333333333	78
-80.0958333333333	25.7776515151515	78
-80.0914215686275	25.8125	78
-80.0866311939349	25.8458333333333	78
-80.0947916666667	25.8791666666667	78
-80.0928921568627	25.9208333333333	78
-80.0982142857143	25.9541666666667	78
-80.0958333333333	25.9854166666667	78
-80.080523255814	26.0125	78
-80.0815170940171	25.9875	78
-80.0804347826087	25.9625	78
-80.0805555555555	25.9375	78
-80.0791666666667	25.915625	78
-80.0799418604651	25.9041666666667	78
-80.0803861788618	25.8791666666667	78
-80.0791666666667	25.8595074215944	78
-80.0791666666667	25.8427083333333	78
-80.0791666666667	25.8263888888889	78
-80.0774193548387	25.8041666666667	78
-80.0785256410256	25.7791666666667	78
-80.0775709219858	25.7541666666667	78
-80.078125	25.7291666666667	78
-80.0781132439282	25.7041666666667	78
-80.0787393162393	25.6791666666667	78
-80.0780610348417	25.6541666666667	78
-80.0798423423423	25.6375	78
-80.080119047619	25.6125	78
-80.0822619047619	25.5875	78
-80.0841666666667	25.5625	78
-80.0872549019608	25.5375	78
-80.0899774774775	25.5208333333333	78
-80.091875	25.4958333333333	78
-80.0968023255814	25.4791666666667	78
-80.1030172413793	25.4541666666667	78
-80.1052419354839	25.4375	78
-80.1111666666667	25.4125	78
-80.1162037037037	25.3958333333333	78
-80.121130952381	25.3791666666667	78
-80.1276041666667	25.3541666666667	78
-80.1331790123457	25.3375	78
-80.1383928571429	25.3208333333333	78
-80.1458333333333	25.303125	78
-80.1541666666667	25.2849290269294	78
-80.1625	25.2671296296296	78
-80.1711956521739	25.2541666666667	78
-80.1791666666667	25.2321592450722	78
-80.1875	25.2180555555556	78
-80.1958333333333	25.1975	78
-80.1995	25.1791666666667	78
-80.2100490196079	25.1625	78
-80.2195833333333	25.1458333333333	78
-80.2291666666667	25.1358333333333	78
-80.2391666666667	25.1208333333333	78
-80.2483333333333	25.1041666666667	78
-80.2655303030303	25.0958333333333	78
-80.2738636363636	25.0791666666667	78
-80.2875	25.0642857142857	78
-80.2965909090909	25.0541666666667	78
